ply
format ascii 1.0
comment Created by CloudCompare v2.10.1 (Zephyrus)
comment Created 1 Jun 2020 12:54:53
obj_info Generated by CloudCompare!
element vertex 1857
property float x
property float y
property float z
end_header
-8.11769 1.81984 216.043 
-8.11193 1.721 216.033 
-7.9367 1.89586 215.705 
-7.63846 2.00225 215.767 
-7.83953 1.92512 216.03 
-7.73783 1.96465 215.666 
-7.41973 2.07696 215.617 
-7.42 2.07711 215.785 
-7.71799 1.97184 215.757 
-7.78423 1.94532 215.885 
-7.70405 1.97785 215.857 
-7.51716 2.044 215.643 
-7.55815 2.02787 215.912 
-7.79222 1.94295 216.095 
-7.56356 2.02293 216.106 
-7.67128 1.98578 216.075 
-7.58468 2.01746 215.959 
-7.41198 2.0786 215.675 
-7.41561 2.07504 215.863 
-7.4283 2.07068 216.07 
-7.78578 1.94719 215.993 
-7.38709 2.0841 216.043 
-7.48334 2.05122 215.939 
-7.59708 2.01555 215.626 
-7.73439 1.96483 216.079 
-7.56003 2.02829 215.739 
-7.51743 2.04415 215.806 
-7.78908 1.94517 215.734 
-7.65022 1.99564 215.647 
-7.46641 2.05866 215.889 
-7.58385 2.02035 215.683 
-7.72862 1.96783 215.904 
-7.78761 1.94759 215.794 
-7.73051 1.96653 215.982 
-7.43733 2.06567 215.968 
-7.59325 2.01553 215.805 
-7.4531 2.06254 216.018 
-7.53712 2.03513 215.864 
-7.50284 2.04632 215.995 
-7.47438 2.05975 215.603 
-7.71795 1.97268 215.607 
-7.66677 1.9896 215.952 
-7.69156 1.98057 216.013 
-7.6077 2.01068 215.894 
-7.65551 1.99313 216.135 
-7.79213 1.9429 216.044 
-7.6247 2.00327 215.99 
-7.7938 1.94408 215.621 
-7.77766 1.94774 215.943 
-7.47518 2.05772 215.735 
-7.47035 2.05962 215.659 
-7.85144 1.92283 216.119 
-7.75869 1.95554 215.84 
-7.68499 1.9856 215.701 
-7.50371 2.04519 216.047 
-7.84162 1.92828 215.626 
-7.6001 2.01239 216.042 
-7.37828 2.08676 215.925 
-7.38154 2.08895 215.753 
-7.76682 1.95325 216.139 
-7.35761 2.09771 215.617 
-7.67125 1.98749 215.81 
-7.62488 2.00336 216.096 
-7.46355 2.06018 215.816 
-7.80153 1.94156 215.671 
-7.5602 2.03013 215.595 
-7.3917 2.0812 216.104 
-7.36986 2.09138 215.802 
-7.6553 1.99388 215.885 
-7.48852 2.05038 216.11 
-7.8267 1.93274 215.968 
-7.83949 1.92597 215.885 
-7.55029 2.02857 216.017 
-7.66777 1.99202 215.599 
-7.62661 2.00458 215.714 
-7.52469 2.0405 215.696 
-7.82626 1.93163 215.824 
-7.37446 2.08761 215.989 
-7.84356 1.927 215.735 
-7.42657 2.07469 215.726 
-8.63193 2.97795 216.154 
-8.5638 2.78258 216.156 
-8.60021 2.78041 216.233 
-8.60836 2.85116 216.196 
-8.56353 2.71536 216.204 
-8.65661 3.03928 216.159 
-8.59344 2.71652 216.263 
-8.62358 2.90622 216.187 
-8.5787 3.07928 215.95 
-8.53677 3.0693 215.868 
-8.5732 2.88978 216.103 
-8.41606 2.82635 215.804 
-8.36067 2.76503 215.73 
-8.54256 3.1945 215.746 
-8.51514 2.89628 215.976 
-8.35776 2.81147 215.677 
-8.48241 3.06382 215.733 
-8.5822 3.24369 215.81 
-8.64257 3.15217 216.046 
-8.43993 2.88376 215.809 
-8.62038 3.21469 215.938 
-8.58651 3.20411 215.863 
-8.39918 2.90512 215.681 
-8.58367 3.13434 215.913 
-8.48432 2.7842 216 
-8.4718 2.85906 215.906 
-8.65919 3.22937 216.018 
-8.50635 2.96428 215.893 
-8.52401 2.73753 216.111 
-8.57021 3.02697 215.993 
-8.56616 3.14394 215.86 
-8.4805 3.161 215.623 
-8.51342 2.77125 216.067 
-8.49203 3.02522 215.804 
-8.5452 3.01464 215.948 
-8.50529 3.11633 215.737 
-8.56047 2.94839 216.031 
-8.53186 3.09575 215.825 
-8.54144 3.24467 215.706 
-8.3973 2.74857 215.839 
-8.63363 3.0775 216.08 
-8.49847 3.23486 215.592 
-8.41926 2.89807 215.74 
-8.59457 3.00069 216.054 
-8.33566 2.76797 215.664 
-8.60278 3.13258 215.961 
-8.62803 3.18157 215.987 
-8.44138 2.98231 215.712 
-8.38957 2.94373 215.624 
-8.55614 3.1704 215.813 
-8.53936 2.8996 216.023 
-8.45702 3.09536 215.633 
-8.5243 3.25113 215.649 
-8.45436 2.74736 215.962 
-8.47896 2.91981 215.875 
-8.48792 2.83749 215.957 
-8.4422 3.02698 215.668 
-8.59017 2.93837 216.094 
-8.4654 2.96428 215.791 
-8.36883 2.87143 215.642 
-8.47495 3.09282 215.69 
-8.53024 2.83925 216.055 
-8.55382 2.81925 216.116 
-8.51813 2.93645 215.942 
-8.50395 3.17569 215.671 
-8.4207 2.97624 215.665 
-8.43969 2.81656 215.879 
-8.38629 2.77013 215.795 
-8.46071 2.79401 215.937 
-8.38909 2.83987 215.726 
-8.51389 3.0168 215.865 
-8.60743 3.06438 216.032 
-8.48016 2.95626 215.839 
-8.67185 3.11982 216.128 
-8.50583 2.83495 216.007 
-8.32111 2.78208 215.614 
-8.69183 3.20858 216.101 
-8.33887 2.83969 215.601 
-8.61272 3.24779 215.882 
-8.42249 3.02071 215.62 
-8.42642 2.756 215.894 
-8.67071 3.15979 216.091 
-8.61911 3.12219 216.009 
-8.62726 3.02067 216.111 
-8.5637 3.24839 215.759 
-8.54749 2.96524 215.983 
-8.46681 3.0068 215.755 
-8.36414 2.90395 215.603 
-8.58437 2.85391 216.151 
-8.43475 3.07635 215.592 
-8.44956 2.86044 215.857 
-8.60372 2.91427 216.141 
-8.52717 3.13338 215.781 
-8.70291 3.35976 216 
-8.57249 3.29198 215.733 
-8.57883 3.34371 215.697 
-8.67079 3.58117 215.698 
-8.61743 3.33196 215.816 
-8.71686 3.54553 215.86 
-8.64292 3.44304 215.768 
-8.72943 3.7397 215.702 
-8.65367 3.60803 215.623 
-8.76198 3.59156 215.92 
-8.68558 3.37034 215.937 
-8.69121 3.46911 215.878 
-8.67342 3.67033 215.614 
-8.69145 3.54141 215.798 
-8.66463 3.29196 215.958 
-8.71061 3.60078 215.791 
-8.72858 3.46164 215.955 
-8.73667 3.68934 215.767 
-8.73405 3.60529 215.852 
-8.63993 3.3927 215.815 
-8.66581 3.51084 215.755 
-8.77805 3.71678 215.846 
-8.69921 3.42775 215.918 
-8.64324 3.34822 215.863 
-8.69706 3.66563 215.684 
-8.64336 3.50614 215.707 
-8.69557 3.30314 216.033 
-8.66343 3.45325 215.82 
-8.59001 3.28747 215.786 
-8.55203 3.32765 215.645 
-8.58873 3.40797 215.661 
-8.60228 3.35331 215.751 
-8.7453 3.65603 215.82 
-8.72697 3.40797 216.013 
-8.61929 3.46303 215.681 
-8.5256 3.28806 215.61 
-8.66671 3.39347 215.874 
-8.70571 3.63742 215.742 
-8.57237 3.41326 215.604 
-8.64793 3.56432 215.654 
-8.73851 3.53611 215.922 
-8.75821 3.76556 215.754 
-8.69853 3.76419 215.596 
-8.76746 3.74539 215.802 
-8.70929 3.71108 215.666 
-8.642 3.29648 215.908 
-8.76874 3.66053 215.878 
-8.59742 3.46126 215.623 
-8.61281 3.5122 215.61 
-8.68902 3.25043 216.062 
-8.61629 3.40757 215.728 
-8.74729 3.46302 216.002 
-8.63055 3.51378 215.658 
-8.60733 3.2769 215.838 
-8.54909 3.35878 215.597 
-8.74637 3.50908 215.97 
-8.721 3.34291 216.054 
-8.69436 3.50515 215.837 
-8.62508 3.56786 215.591 
-8.72275 3.76752 215.658 
-8.68753 3.57785 215.75 
-8.08544 1.35679 216.258 
-8.04324 1.27959 216.227 
-7.9944 1.08344 216.274 
-8.15282 1.42692 216.345 
-8.22794 1.55563 216.399 
-8.0688 1.42637 216.171 
-8.11516 1.06846 216.512 
-8.11194 1.4677 216.229 
-8.14784 1.08842 216.554 
-8.15555 1.57213 216.242 
-8.31413 1.42523 216.649 
-8.05686 1.15964 216.341 
-8.26357 1.4282 216.548 
-8.12462 1.37852 216.323 
-8.24932 1.21595 216.662 
-8.23705 1.45899 216.474 
-8.07759 1.06986 216.441 
-8.31127 1.49717 216.596 
-8.23527 1.29828 216.581 
-8.12082 1.18762 216.439 
-8.23674 1.51818 216.438 
-8.20121 1.28673 216.521 
-8.27718 1.30825 216.655 
-8.33883 1.50186 216.646 
-7.98819 1.16418 216.198 
-8.17002 1.20835 216.513 
-8.11151 1.12628 216.465 
-8.19185 1.04293 216.672 
-8.27359 1.56892 216.47 
-8.21556 1.11974 216.666 
-8.131 1.44044 216.29 
-8.12443 1.54471 216.196 
-8.19162 1.17345 216.579 
-8.03667 1.22688 216.25 
-8.09643 1.4973 216.175 
-8.05845 1.32956 216.223 
-7.99752 1.23061 216.167 
-8.26444 1.33629 216.614 
-8.00567 1.13928 216.252 
-8.13993 1.51001 216.254 
-8.17646 1.30596 216.463 
-8.19156 1.568 216.318 
-8.22552 1.2146 216.617 
-8.06744 1.28291 216.276 
-8.12393 1.29405 216.381 
-8.21003 1.25439 216.562 
-8.09044 1.26506 216.333 
-8.0503 1.10692 216.365 
-8.19797 1.36181 216.466 
-8.16063 1.24286 216.474 
-8.20248 1.49038 216.396 
-8.30323 1.36115 216.672 
-8.02614 1.29626 216.178 
-8.22292 1.33337 216.534 
-8.07072 1.38522 216.21 
-8.18032 1.1125 216.597 
-8.15921 1.50413 216.301 
-8.16395 1.36555 216.405 
-8.18934 1.52155 216.35 
-8.08754 1.15452 216.403 
-8.19276 1.43218 216.416 
-8.1858 1.07879 216.635 
-7.95957 1.09345 216.192 
-8.08328 1.20431 216.363 
-8.24295 1.15912 216.689 
-8.27706 1.51521 216.513 
-8.23106 1.38883 216.51 
-8.06029 1.22725 216.298 
-8.02573 1.12712 216.303 
-8.14182 1.14978 216.504 
-8.25387 1.38019 216.562 
-8.28693 1.39192 216.615 
-8.1339 1.25229 216.424 
-8.0317 1.18199 216.276 
-8.15231 1.04981 216.587 
-8.10664 1.31992 216.328 
-8.29152 1.43994 216.592 
-8.0388 1.35896 216.157 
-8.33751 1.54595 216.614 
-8.2486 1.26299 216.632 
-8.10185 1.41772 216.247 
-8.27929 1.25788 216.693 
-8.21167 1.16129 216.626 
-8.30448 1.57498 216.528 
-8.28449 1.48111 216.553 
-8.02253 1.07578 216.337 
-8.30287 1.53147 216.557 
-7.95668 1.13481 216.159 
-7.98333 0.816014 216.438 
-7.8556 0.791581 216.194 
-8.03557 0.760701 216.566 
-7.90862 0.709632 216.363 
-8.07593 0.783213 216.628 
-7.98114 0.957123 216.33 
-7.90192 0.86388 216.237 
-7.84154 0.72711 216.213 
-7.95345 0.992227 216.252 
-7.92697 0.906781 216.256 
-8.11055 0.9343 216.589 
-8.06602 0.724029 216.65 
-8.04038 0.67309 216.636 
-8.03586 0.82283 216.528 
-7.91625 0.990478 216.177 
-8.01007 0.659774 216.588 
-7.95863 1.04318 216.226 
-8.06178 0.930808 216.506 
-8.07481 0.833385 216.589 
-8.01406 0.85166 216.467 
-7.92449 0.808395 216.324 
-7.92407 0.953235 216.217 
-8.08983 1.02409 216.498 
-7.87913 0.720624 216.298 
-7.89631 0.78039 216.285 
-8.00251 0.748959 216.513 
-7.85171 0.833133 216.156 
-8.13171 0.861768 216.681 
-8.10296 0.846107 216.636 
-8.08393 0.883558 216.573 
-7.90464 0.664561 216.389 
-8.1438 0.936824 216.65 
-7.9497 0.685107 216.458 
-8.04548 0.956495 216.458 
-7.9342 0.709614 216.413 
-7.98131 0.639016 216.545 
-8.08875 0.94784 216.545 
-8.11018 0.800825 216.681 
-7.98577 0.868537 216.407 
-7.95147 0.830531 216.362 
-7.93227 1.05965 216.158 
-8.02178 1.03157 216.361 
-8.13897 0.998959 216.598 
-8.00875 0.708975 216.549 
-7.97144 0.752123 216.453 
-7.95041 0.764483 216.408 
-7.87499 0.882514 216.17 
-8.03728 1.00198 216.414 
-7.95083 0.640028 216.493 
-7.99522 1.03688 216.308 
-7.97715 0.901856 216.364 
-8.05581 0.881026 216.527 
-8.00476 0.947311 216.391 
-7.95195 0.898735 216.314 
-7.88005 0.679662 216.329 
-7.82347 0.749066 216.159 
-7.92357 0.854459 216.289 
-8.183 0.968748 216.704 
-8.04874 0.59801 216.701 
-8.06338 0.665425 216.686 
-7.86934 0.768446 216.241 
-7.89317 0.942084 216.162 
-8.00534 0.798348 216.488 
-7.85095 0.687522 216.265 
-7.97728 0.705073 216.498 
-8.16236 0.983065 216.655 
-8.05091 1.0492 216.404 
-8.08765 0.714605 216.699 
-7.90198 0.909732 216.203 
-7.81435 0.688718 216.188 
-8.03341 0.901824 216.472 
-8.02359 0.620379 216.642 
-7.90849 0.754515 216.333 
-8.0426 0.719525 216.604 
-8.11894 1.02132 216.548 
-8.15813 0.906438 216.704 
-7.9528 0.948512 216.282 
-8.09018 1.54238 216.128 
-7.85893 1.42133 215.687 
-7.94846 1.18027 216.101 
-7.81565 1.25771 215.723 
-7.74664 1.17462 215.615 
-7.88867 1.42661 215.75 
-7.88019 1.21224 215.923 
-7.86925 1.52831 215.604 
-7.90507 1.27964 215.925 
-7.89485 1.52322 215.676 
-7.86829 1.11269 215.981 
-7.92354 1.44718 215.82 
-8.03749 1.41834 216.105 
-7.97392 1.43306 215.953 
-7.99742 1.31117 216.105 
-7.918 1.23221 215.987 
-7.99421 1.26491 216.129 
-8.0041 1.47598 215.991 
-7.93227 1.32314 215.947 
-7.78807 1.25301 215.652 
-8.05495 1.55551 216.03 
-7.95124 1.38663 215.94 
-7.87899 1.37352 215.789 
-7.85415 1.15933 215.907 
-7.98962 1.55633 215.889 
-7.96078 1.28688 216.043 
-7.89864 1.5673 215.648 
-7.98869 1.60747 215.846 
-7.78704 1.18698 215.718 
-7.99004 1.40641 216.013 
-7.86254 1.27691 215.824 
-7.809 1.32119 215.639 
-8.00813 1.38954 216.061 
-7.87435 1.47737 215.674 
-7.94776 1.43523 215.894 
-7.88894 1.29101 215.876 
-7.95095 1.48148 215.859 
-7.81713 1.14837 215.828 
-7.91699 1.61766 215.641 
-7.93136 1.5873 215.718 
-7.84397 1.21538 215.836 
-7.88819 1.33296 215.837 
-8.02607 1.59491 215.938 
-7.92202 1.49539 215.778 
-7.84289 1.32159 215.739 
-7.95501 1.23298 216.07 
-7.83238 1.24419 215.779 
-7.91991 1.34803 215.903 
-8.03719 1.503 216.039 
-7.98877 1.50145 215.931 
-7.90432 1.12385 216.052 
-7.78416 1.29454 215.602 
-7.9392 1.55006 215.771 
-7.97088 1.35213 216.008 
-7.95495 1.54184 215.818 
-7.85384 1.47737 215.609 
-7.84607 1.36783 215.696 
-7.92169 1.1744 216.049 
-7.80787 1.37135 215.595 
-8.05172 1.46851 216.101 
-7.79923 1.1713 215.765 
-7.93225 1.1254 216.105 
-8.08017 1.57393 216.076 
-7.75094 1.12995 215.674 
-7.88939 1.58748 215.595 
-7.83588 1.42387 215.617 
-7.96823 1.62786 215.777 
-7.89885 1.18303 215.982 
-8.02414 1.45362 216.047 
-7.87176 1.24144 215.877 
-7.92035 1.40603 215.85 
-8.01165 1.54377 215.95 
-7.77358 1.12545 215.736 
-7.93223 1.28237 215.979 
-8.05425 1.62294 215.982 
-7.76164 1.22361 215.606 
-7.89779 1.49206 215.718 
-7.82301 1.11663 215.872 
-8.0205 1.36465 216.109 
-7.91467 1.65685 215.599 
-7.81824 1.30102 215.687 
-8.06437 1.52102 216.083 
-7.98463 1.329 216.058 
-7.82836 1.37645 215.641 
-8.11543 1.58627 216.147 
-7.97267 1.18869 216.144 
-7.76852 1.18658 215.666 
-7.82117 0.960536 215.996 
-7.67464 0.944878 215.645 
-7.73871 0.805739 215.93 
-7.81882 0.81727 216.097 
-7.83899 1.064 215.95 
-7.67176 0.793615 215.785 
-7.71351 1.00543 215.697 
-7.78656 0.81964 216.026 
-7.72086 0.869436 215.838 
-7.63707 0.763832 215.724 
-7.85151 0.999317 216.026 
-7.77723 0.920373 215.93 
-7.65604 0.827317 215.715 
-7.70089 0.790861 215.856 
-7.70594 0.912164 215.766 
-7.87342 1.05713 216.031 
-7.73512 0.950175 215.803 
-7.76968 1.06049 215.789 
-7.7709 0.732041 216.059 
-7.69939 0.864538 215.789 
-7.73885 0.760862 215.966 
-7.79899 1.01797 215.903 
-7.70065 0.749117 215.887 
-7.69239 0.941356 215.706 
-7.76485 0.945271 215.882 
-7.69697 1.03521 215.614 
-7.81873 0.902917 216.032 
-7.84669 0.91466 216.084 
-7.70713 0.71013 215.949 
-7.72083 1.06715 215.649 
-7.79374 1.08322 215.831 
-7.8161 1.00639 215.949 
-7.79547 0.701655 216.137 
-7.79113 0.867654 216 
-7.71899 0.971729 215.742 
-7.74527 0.868652 215.896 
-7.67736 0.882186 215.719 
-7.90355 1.06946 216.088 
-7.78128 1.02659 215.851 
-7.7268 1.1271 215.609 
-7.65931 0.731897 215.819 
-7.80066 0.767889 216.093 
-7.89424 1.01322 216.11 
-7.74881 1.05343 215.744 
-7.7671 0.850019 215.958 
-7.81065 1.06558 215.886 
-7.87352 0.966386 216.1 
-7.74215 0.716379 216.01 
-7.74285 0.998568 215.78 
-7.84407 0.866256 216.114 
-7.73883 0.917841 215.841 
-7.81611 0.859607 216.058 
-7.66337 0.894132 215.661 
-7.74212 1.08126 215.694 
-7.78923 1.11673 215.786 
-7.61277 0.788029 215.636 
-7.65642 0.943408 215.597 
-7.59009 0.761967 215.597 
-7.64236 0.843285 215.662 
-7.62285 0.848178 215.6 
-7.64417 0.892856 215.614 
-7.46272 4.39514 215.281 
-7.4397 4.33486 215.568 
-7.43649 4.33195 215.168 
-7.75082 4.22138 215.18 
-7.52938 4.29509 215.417 
-7.60495 4.26968 215.5 
-7.75489 4.21894 215.518 
-7.48385 4.46605 215.028 
-7.54583 4.2916 215.29 
-7.6002 4.27336 215.223 
-7.75075 4.21961 215.382 
-7.47029 4.42135 215.435 
-7.55839 4.28892 215.179 
-7.4528 4.32242 215.085 
-7.69668 4.24148 215.144 
-7.64322 4.26034 215.04 
-7.56386 4.28314 215.531 
-7.46641 4.40776 215.36 
-7.6748 4.24642 215.553 
-7.48952 4.49778 215.21 
-7.48822 4.46973 215.417 
-7.53711 4.29344 215.347 
-7.46552 4.31808 215.308 
-7.4819 4.31456 215.141 
-7.49112 4.47333 215.505 
-7.44111 4.3426 215.458 
-7.47081 4.42338 215.514 
-7.73868 4.22604 215.307 
-7.6794 4.24613 215.245 
-7.65099 4.25785 215.122 
-7.72242 4.23311 215.061 
-7.43937 4.32536 215.26 
-7.48938 4.4977 215.119 
-7.6745 4.24625 215.369 
-7.46204 4.39812 215.096 
-7.49985 4.30693 215.208 
-7.74799 4.22204 215.246 
-7.44157 4.33529 215.395 
-7.58564 4.27555 215.43 
-7.45587 4.38213 215.189 
-7.48787 4.30659 215.447 
-7.47501 4.31419 215.361 
-7.65326 4.25167 215.443 
-7.49417 4.48473 215.316 
-7.62476 4.26247 215.387 
-7.73361 4.22519 215.447 
-7.65187 4.25673 215.179 
-7.50623 4.30093 215.522 
-7.60507 4.27149 215.326 
-7.66306 4.25055 215.32 
-7.45505 4.38416 215.044 
-7.53257 4.29811 215.083 
-7.47611 4.43714 215.132 
-7.73955 4.22664 215.118 
-7.45468 4.3185 215.52 
-7.47703 4.44113 215.206 
-7.46911 4.40951 215.575 
-7.57052 4.28425 215.044 
-7.49488 4.30875 215.05 
-7.45405 4.37069 215.536 
-7.44781 4.36149 215.33 
-7.48068 4.45881 215.256 
-7.69158 4.23888 215.505 
-7.57063 4.28432 215.113 
-7.4764 4.4373 215.311 
-7.62125 4.2661 215.273 
-7.6078 4.27164 215.078 
-7.48304 4.50708 215.07 
-7.54456 4.28903 215.478 
-7.72285 4.23161 215.57 
-7.43665 4.32869 215.032 
-7.5526 4.29015 215.232 
-7.48058 4.45453 215.083 
-7.48656 4.46694 215.365 
-7.70147 4.23956 215.197 
-7.60891 4.27152 215.157 
-7.50287 4.30638 215.259 
-7.4879 4.49762 214.82 
-7.43881 4.36157 214.741 
-7.69299 4.25272 214.549 
-7.52908 4.29752 214.865 
-7.61248 4.27053 214.94 
-7.48242 4.47109 214.745 
-7.75082 4.22312 214.939 
-7.70042 4.2432 214.67 
-7.63656 4.26446 214.807 
-7.47432 4.44534 214.864 
-7.61962 4.43994 214.499 
-7.53224 4.29706 215.008 
-7.61797 4.26998 214.578 
-7.54205 4.29768 214.644 
-7.72153 4.23423 215 
-7.45055 4.38376 214.815 
-7.66621 4.25355 214.961 
-7.67838 4.24978 214.732 
-7.48662 4.48747 214.648 
-7.45554 4.32171 214.96 
-7.47463 4.44129 214.947 
-7.48602 4.31226 214.78 
-7.52469 4.30228 214.696 
-7.52853 4.36764 214.548 
-7.66029 4.39904 214.487 
-7.6222 4.27023 214.648 
-7.45715 4.39576 214.869 
-7.54353 4.31566 214.566 
-7.49984 4.31127 214.595 
-7.43928 4.32792 214.837 
-7.74049 4.22904 214.728 
-7.48483 4.31061 214.899 
-7.61119 4.26968 214.872 
-7.45184 4.39653 214.622 
-7.53681 4.29588 214.802 
-7.75914 4.21932 214.875 
-7.47528 4.46213 214.583 
-7.62353 4.33308 214.534 
-7.47344 4.44136 214.811 
-7.47471 4.3175 214.694 
-7.72186 4.23367 214.604 
-7.59527 4.27782 214.719 
-7.69655 4.24315 214.823 
-7.57892 4.37476 214.529 
-7.48168 4.36287 214.569 
-7.42874 4.34302 214.605 
-7.6631 4.25579 214.613 
-7.70412 4.23967 214.894 
-7.43911 4.36347 214.684 
-7.46561 4.41154 214.987 
-7.47129 4.44166 214.696 
-7.48918 4.48318 214.903 
-7.51064 4.42026 214.563 
-7.74708 4.23258 214.555 
-7.57434 4.28341 214.983 
-7.46211 4.41605 214.758 
-7.68111 4.29999 214.531 
-7.43274 4.33035 214.912 
-7.50337 4.30592 214.965 
-7.54378 4.29542 214.75 
-7.54444 4.29244 214.916 
-7.58663 4.27971 214.829 
-7.74238 4.22773 214.806 
-7.45645 4.3919 214.93 
-7.75174 4.22463 214.656 
-7.59536 4.27786 214.775 
-7.49087 4.49108 214.964 
-7.46933 4.32158 214.634 
-7.43547 4.32964 214.785 
-7.80483 4.20332 215.193 
-7.81334 4.19875 215.372 
-7.79739 4.20513 215.444 
-7.80276 4.20278 215.249 
-7.78009 4.21325 215.044 
-7.80111 4.20423 215.316 
-7.78468 4.21034 215.097 
-8.566 3.84397 215.087 
-8.60196 3.88986 215.192 
-8.5802 3.83301 215.154 
-8.7099 3.82053 215.57 
-8.61879 3.89676 215.274 
-8.56368 3.89844 215.029 
-8.66676 3.86068 215.402 
-8.68428 3.83579 215.472 
-8.6155 3.8352 215.275 
-8.55043 3.84807 215.034 
-8.64785 3.85832 215.35 
-8.58398 3.8771 215.122 
-8.69216 3.81895 215.521 
-8.5946 3.83321 215.204 
-7.78759 4.21146 214.833 
-7.78757 4.21233 214.706 
-7.7917 4.20829 214.595 
-7.78003 4.21494 214.763 
-7.80831 4.20227 214.925 
-7.78488 4.21219 214.975 
-7.81394 4.20182 214.653 
-8.27439 4.04136 214.752 
-8.58756 3.84395 214.484 
-8.63065 3.97603 214.49 
-8.4667 3.9216 214.58 
-8.62734 3.91445 214.478 
-8.52089 3.8922 214.533 
-8.55884 3.94368 214.523 
-8.4979 3.8574 214.801 
-8.47798 3.90106 214.665 
-8.50213 3.92385 214.77 
-8.52517 3.90602 214.858 
-8.52987 3.8684 214.911 
-8.54962 3.87469 214.982 
-8.49376 3.90813 214.713 
-8.46373 3.87633 214.622 
-8.47341 3.85306 214.704 
-8.53938 3.84762 214.512 
-8.49913 3.95409 214.811 
-8.54193 3.93238 214.986 
-8.47496 3.86174 214.553 
-8.57556 3.89028 214.505 
-8.50797 3.84625 214.858 
-8.66662 3.94729 214.465 
-8.70491 4.04566 214.469 
-8.68245 4.0002 214.466 
-8.14462 4.48737 214.242 
-8.26568 4.45057 214.211 
-8.18835 4.46631 214.273 
-7.89621 4.50418 214.384 
-7.94212 4.52954 214.355 
-8.29414 4.4559 214.101 
-8.34042 4.43737 214.124 
-8.05006 4.50865 214.313 
-8.2165 4.46463 214.221 
-8.26442 4.45993 214.146 
-8.34579 4.42819 214.181 
-8.19977 4.47815 214.163 
-8.29021 4.21226 214.457 
-8.09941 4.49557 214.291 
-7.84736 4.48451 214.401 
-8.32019 4.42733 214.243 
-7.85392 4.53213 214.381 
-8.31054 4.45659 214.051 
-8.37131 4.43411 214.072 
-8.35615 4.44528 214.023 
-8.25202 4.4483 214.26 
-8.23033 4.40081 214.38 
-7.95997 4.54776 214.27 
-8.06061 4.52119 214.212 
-8.19523 4.49678 214.058 
-7.93447 4.61314 214.293 
-7.96995 4.58239 214.207 
-7.94183 4.61464 214.235 
-8.11933 4.51431 214.15 
-8.20541 4.52221 214.008 
-8.00203 4.69616 214.106 
-8.02634 4.57906 214.157 
-8.10304 4.66643 214.036 
-8.26769 4.47696 214.019 
-7.91347 4.5797 214.332 
-8.02012 4.64962 214.083 
-8.27025 4.88254 214.028 
-7.96752 4.71566 214.322 
-8.11892 4.58364 214.036 
-8.10305 4.55528 214.086 
-7.97336 4.65508 214.143 
-8.03848 4.60409 214.103 
-7.98353 4.7051 214.175 
-7.99495 4.75171 214.137 
-7.96385 4.66319 214.195 
-8.25035 4.54269 213.994 
-8.21959 4.4807 214.111 
-8.30644 4.47214 213.985 
-8.13035 4.53263 214.266 
-8.1459 4.5192 214.198 
-8.15438 4.53672 214.08 
-7.97107 4.69852 214.242 
-8.30661 4.68945 214.003 
-8.05358 4.79484 214.062 
-7.99513 4.5244 214.34 
-8.16975 4.60801 214.02 
-8.02816 4.5268 214.265 
-8.02713 4.72979 214.059 
-7.95463 4.66723 214.304 
-8.16378 4.49713 214.133 
-8.1474 4.53296 214.022 
-8.22018 4.9274 214.05 
-8.07173 4.5973 214.062 
-8.06267 4.53189 214.136 
-8.40412 4.73801 213.961 
-8.40976 4.63993 213.956 
-8.17102 4.88631 214.025 
-8.19942 4.96114 214.015 
-8.14518 4.71304 214.072 
-8.31723 4.84751 214.027 
-8.11542 4.9292 214.027 
-7.97268 5.07635 213.948 
-8.00594 4.53838 214.216 
-8.27829 4.78095 214.055 
-8.22459 4.78777 214.074 
-8.12213 5.05328 213.991 
-8.38061 4.45426 214.149 
-8.06368 4.84482 214.052 
-8.05407 4.68147 214.053 
-8.85044 3.95382 214.369 
-8.81132 3.97709 214.399 
-8.75104 4.00668 214.432 
-8.75443 3.95802 214.418 
-8.57557 4.36212 214.062 
-8.69777 3.87462 214.431 
-8.7127 3.81749 214.409 
-8.84105 4.03328 214.384 
-8.75737 3.8819 214.403 
-8.90536 4.31271 214.084 
-8.82134 3.80047 214.309 
-8.81395 4.2529 214.281 
-8.77039 4.06193 214.43 
-8.65192 3.87475 214.454 
-8.83352 3.8603 214.354 
-8.82361 4.32213 214.087 
-8.71009 3.93539 214.44 
-8.87279 4.22574 214.325 
-8.72611 4.28799 214.243 
-8.81308 3.91037 214.375 
-8.88304 4.12476 214.382 
-8.7872 3.82788 214.381 
-8.85276 4.08602 214.393 
-8.78129 4.31442 214.126 
-8.63452 3.81909 214.451 
-8.66304 4.32509 214.116 
-8.85289 4.31015 214.141 
-8.61677 4.34361 214.093 
-8.80851 4.09909 214.418 
-8.76709 4.33556 214.042 
-8.80118 3.78625 214.357 
-8.48328 4.39509 214.059 
-8.73299 4.36896 214.013 
-8.80005 4.326 214.184 
-8.4777 4.3659 214.29 
-8.59206 4.39342 214.017 
-8.59914 4.38881 213.922 
-8.85616 4.33097 214.191 
-8.67303 4.38009 214.022 
-8.50848 4.56074 213.938 
-8.5933 4.60172 213.935 
-8.72019 4.61375 213.915 
-8.48783 4.46811 214.036 
-8.48631 4.69281 213.975 
-8.72433 4.49261 213.988 
-8.72694 4.47568 213.927 
-8.66246 4.58565 213.914 
-8.61886 4.64243 213.912 
-8.587 4.43972 213.917 
-8.69897 4.52839 214.019 
-8.49922 4.62077 213.938 
-8.75207 4.56447 213.938 
-8.59829 4.49049 213.913 
-8.45037 4.52049 213.954 
-8.50286 4.5078 213.934 
-8.57255 4.69062 213.946 
-8.57729 4.53765 213.954 
-8.78164 4.42286 214 
-8.63079 4.78185 213.922 
-8.65954 4.43014 213.917 
-8.61216 4.47251 214.026 
-8.54675 4.6438 213.943 
-8.56304 4.82515 213.924 
-8.70798 4.74989 213.925 
-8.78898 4.66616 213.931 
-8.46374 4.44958 214.084 
-8.4604 4.46263 214.178 
-8.87952 4.80087 213.936 
-8.61708 4.55809 213.908 
-8.52265 4.45388 214.001 
-8.4781 4.52615 213.998 
-8.54629 4.46024 213.938 
-8.51204 4.45616 214.107 
-8.65781 4.46631 214.003 
-8.65381 4.49761 213.909 
-8.41552 4.46851 214.07 
-8.56169 4.52049 214.03 
-8.84183 4.76569 213.962 
-8.51637 4.95203 213.989 
-8.58669 4.45222 214.071 
-8.63794 4.5244 214.005 
-8.44657 4.51628 214.041 
-8.50702 4.87029 214.025 
-8.18201 5.11717 213.995 
-8.13472 5.11551 213.977 
-8.24897 5.16583 213.974 
-8.25758 5.0519 214.014 
-8.27138 5.10517 213.976 
-8.41169 5.06757 213.965 
-8.59389 5.2041 213.95 
-8.98644 5.10723 213.921 
-8.59405 3.73908 215.31 
-8.50862 3.67143 215.1 
-8.58436 3.66561 215.367 
-8.45692 3.52175 215.123 
-8.50442 3.46242 215.354 
-8.50457 3.3768 215.455 
-8.49146 3.58113 215.17 
-8.52035 3.37368 215.509 
-8.52322 3.61151 215.235 
-8.47719 3.424 215.307 
-8.6416 3.80708 215.384 
-8.50386 3.51551 215.29 
-8.36557 3.33306 215.068 
-8.61712 3.72636 215.402 
-8.51388 3.44832 215.404 
-8.62613 3.67973 215.468 
-8.58982 3.61661 215.417 
-8.54579 3.4542 215.484 
-8.44463 3.34896 215.299 
-8.68095 3.7534 215.544 
-8.56235 3.4499 215.54 
-8.46989 3.35722 215.381 
-8.48216 3.5249 215.206 
-8.39296 3.33678 215.14 
-8.39833 3.43453 215.039 
-8.44205 3.29548 215.356 
-8.54822 3.56274 215.37 
-8.62135 3.60527 215.531 
-8.4587 3.58148 215.043 
-8.56888 3.50769 215.49 
-8.59192 3.79452 215.24 
-8.6413 3.65328 215.543 
-8.5323 3.58019 215.319 
-8.52108 3.72297 215.086 
-8.44664 3.46062 215.163 
-8.60278 3.5743 215.496 
-8.42669 3.38205 215.194 
-8.46321 3.46142 215.224 
-8.46944 3.29412 215.44 
-8.5507 3.77824 215.129 
-8.56192 3.7424 215.205 
-8.50868 3.32606 215.521 
-8.39573 3.38105 215.087 
-8.5623 3.69851 215.258 
-8.54179 3.71377 215.169 
-8.55932 3.65325 215.301 
-8.39867 3.29899 215.215 
-8.42767 3.46333 215.07 
-8.61633 3.75809 215.355 
-8.56208 3.62114 215.359 
-8.48554 3.61794 215.092 
-8.58837 3.48752 215.564 
-8.54457 3.80389 215.06 
-8.53816 3.51788 215.394 
-8.66124 3.78785 215.427 
-8.5436 3.3874 215.556 
-8.4247 3.32642 215.254 
-8.52185 3.6454 215.192 
-8.42297 3.42456 215.131 
-8.55118 3.51632 215.443 
-8.50723 3.56273 215.249 
-8.44526 3.51996 215.07 
-8.65454 3.72401 215.504 
-8.48099 3.41718 215.362 
-8.51911 3.75391 215.032 
-8.61046 3.78983 215.311 
-8.47283 3.28024 215.497 
-8.45234 3.39735 215.263 
-8.6374 3.73048 215.451 
-8.50136 3.27454 215.557 
-8.37145 3.30131 215.111 
-8.49384 3.67946 215.043 
-8.60281 3.54885 215.55 
-8.5018 3.39873 215.404 
-8.49193 3.32939 215.468 
-8.42766 3.30038 215.305 
-8.38075 3.383 215.036 
-8.67837 3.7101 215.584 
-8.56618 3.5653 215.427 
-8.60798 3.62525 215.477 
-8.51706 3.50983 215.338 
-8.65676 3.77046 215.475 
-8.46953 3.56405 215.092 
-8.48175 3.46692 215.276 
-8.60993 3.66559 215.416 
-8.41389 3.13552 215.465 
-8.30901 3.16953 215.074 
-8.32887 2.93235 215.461 
-8.24488 3.03454 215.034 
-8.20897 2.87155 215.145 
-8.3449 3.17466 215.194 
-8.24997 2.83593 215.33 
-8.31294 3.12802 215.144 
-8.31706 3.01108 215.314 
-8.35005 3.28161 215.065 
-8.32496 3.05535 215.285 
-8.40147 3.14511 215.413 
-8.207 2.90249 215.095 
-8.16912 2.82648 215.07 
-8.43933 3.1702 215.5 
-8.3824 3.24364 215.232 
-8.28565 2.82987 215.448 
-8.39559 3.19722 215.337 
-8.43285 3.21428 215.427 
-8.28134 2.90509 215.34 
-8.37287 3.08457 215.399 
-8.33716 2.99385 215.402 
-8.39122 3.06362 215.495 
-8.18195 2.81884 215.128 
-8.32321 3.11784 215.201 
-8.31901 2.94448 215.408 
-8.30558 2.87787 215.447 
-8.44878 3.14591 215.553 
-8.32618 3.22929 215.052 
-8.35696 3.24969 215.14 
-8.30269 3.0669 215.197 
-8.3829 3.0072 215.532 
-8.22831 2.95226 215.096 
-8.27389 3.08176 215.077 
-8.37683 3.13472 215.351 
-8.34884 3.07203 215.351 
-8.45414 3.23348 215.468 
-8.34488 3.10845 215.281 
-8.25137 2.90899 215.238 
-8.26736 3.00361 215.161 
-8.23915 2.79735 215.362 
-8.31523 2.85966 215.504 
-8.24132 2.94561 215.15 
-8.30228 2.9529 215.358 
-8.23521 2.99163 215.062 
-8.28371 2.9423 215.295 
-8.36555 3.01267 215.466 
-8.21193 2.95244 215.039 
-8.29667 2.78285 215.541 
-8.28512 3.07139 215.127 
-8.36887 2.94274 215.563 
-8.22496 2.8796 215.197 
-8.4253 3.10065 215.536 
-8.37054 3.18487 215.268 
-8.40033 3.23091 215.299 
-8.35036 2.94235 215.516 
-8.27934 2.78835 215.485 
-8.28093 2.85729 215.396 
-8.33781 3.19541 215.139 
-8.29164 3.01714 215.232 
-8.20364 2.81965 215.202 
-8.47483 3.23446 215.522 
-8.22494 2.83376 215.255 
-8.18983 2.89366 215.04 
-8.25671 2.87943 215.303 
-8.2218 2.80282 215.296 
-8.2713 2.96209 215.229 
-8.44607 3.25953 215.41 
-8.34362 2.89375 215.545 
-8.42458 3.24444 215.367 
-8.3664 3.14902 215.303 
-8.25609 2.795 215.413 
-8.28177 3.12603 215.035 
-8.2571 3.01888 215.101 
-8.40448 3.27186 215.268 
-8.19063 2.7796 215.34 
-8.41057 3.19527 215.385 
-8.40833 3.05206 215.549 
-8.47361 3.18783 215.567 
-8.39412 2.99172 215.58 
-8.2036 3.10477 214.749 
-8.23489 3.06957 214.514 
-8.15686 2.89812 214.902 
-8.07595 2.88863 214.605 
-8.14729 2.84857 214.515 
-8.21119 3.20912 214.562 
-8.20851 3.19036 214.634 
-8.28633 3.10199 214.495 
-8.1089 2.87397 214.749 
-8.18892 3.09424 214.547 
-8.23102 3.22564 214.674 
-8.37223 3.27436 214.484 
-8.27288 3.1838 214.911 
-8.21392 2.99627 214.509 
-8.21556 2.87857 214.484 
-8.20617 3.05642 214.842 
-8.23193 3.26614 214.572 
-8.2251 3.18607 214.709 
-8.30978 3.29057 214.89 
-8.18211 2.91656 214.968 
-8.25451 3.25564 214.719 
-8.15417 2.78695 214.499 
-8.23558 3.0496 214.969 
-8.1606 2.96256 214.815 
-8.06162 2.83332 214.56 
-8.29527 3.22162 214.516 
-8.13239 2.94471 214.737 
-8.13378 2.85482 214.885 
-8.25372 3.20589 214.793 
-8.16357 2.86014 214.987 
-8.21428 2.99474 214.974 
-8.36656 3.20611 214.47 
-8.24879 3.14576 214.865 
-8.28002 3.0206 214.479 
-8.10037 2.88872 214.548 
-8.2782 3.26115 214.807 
-8.17282 3.04873 214.719 
-8.19631 3.01253 214.869 
-8.24807 3.15467 214.527 
-8.26046 3.09154 215.004 
-8.31259 3.17626 214.498 
-8.28648 3.24627 214.859 
-8.25906 3.1305 214.93 
-8.27781 3.15736 214.97 
-8.13711 2.98858 214.681 
-8.17144 3.12844 214.596 
-8.15166 2.94055 214.531 
-8.23714 3.14908 214.816 
-8.08759 2.85477 214.701 
-8.28271 3.29384 214.76 
-8.19809 2.98571 214.922 
-8.28042 3.30425 214.542 
-8.09923 2.93292 214.626 
-8.31609 3.27099 214.943 
-8.34079 3.30178 215.008 
-8.1458 2.91456 214.829 
-8.22884 2.93404 214.487 
-8.10657 2.78847 214.529 
-8.20686 2.78033 214.468 
-8.14795 3.06281 214.609 
-8.30523 3.30877 214.842 
-8.35581 3.14807 214.466 
-8.16948 2.95062 214.864 
-8.18565 3.13277 214.648 
-8.10986 2.9807 214.578 
-8.30565 3.19872 215.018 
-8.19472 3.11671 214.701 
-8.19275 3.0611 214.78 
-8.25863 3.30165 214.652 
-8.19407 2.83294 214.485 
-8.15692 3.00174 214.543 
-8.16158 3.0642 214.662 
-8.31835 3.06384 214.467 
-8.11049 2.84617 214.803 
-8.26596 3.20043 214.851 
-8.27085 2.96531 214.47 
-8.33231 3.29369 214.512 
-8.23656 3.08504 214.912 
-8.13834 2.83153 214.947 
-8.27679 3.31539 214.709 
-8.13356 3.01678 214.631 
-8.21367 3.09873 214.806 
-8.29479 3.22631 214.929 
-8.09153 2.88963 214.657 
-8.1815 3.01036 214.811 
-8.22548 3.23895 214.622 
-8.24913 3.31064 214.59 
-8.22965 3.16787 214.758 
-8.16807 3.00485 214.759 
-8.20006 3.15422 214.555 
-8.1095 2.91256 214.7 
-8.31966 3.25298 214.993 
-8.19465 3.04204 214.531 
-8.42928 3.66468 214.797 
-8.38351 3.46801 214.92 
-8.41665 3.4332 214.491 
-8.43145 3.7722 214.642 
-8.33906 3.39018 214.842 
-8.37067 3.47562 214.854 
-8.41427 3.75318 214.598 
-8.40283 3.63527 214.735 
-8.4905 3.75956 214.915 
-8.34241 3.46793 214.734 
-8.31933 3.40425 214.744 
-8.47666 3.82848 214.749 
-8.41743 3.70265 214.69 
-8.3658 3.53438 214.544 
-8.44055 3.65942 214.862 
-8.35705 3.47423 214.8 
-8.42713 3.53171 214.999 
-8.39356 3.56378 214.809 
-8.391 3.57825 214.54 
-8.34165 3.34182 214.934 
-8.28873 3.36955 214.671 
-8.38171 3.59666 214.709 
-8.48791 3.71117 214.965 
-8.40401 3.54949 214.867 
-8.3748 3.53182 214.774 
-8.41507 3.53814 214.928 
-8.48164 3.48226 214.466 
-8.38801 3.63819 214.664 
-8.42118 3.59906 214.86 
-8.50876 3.7921 214.518 
-8.30826 3.42069 214.671 
-8.45771 3.77517 214.749 
-8.45141 3.81601 214.558 
-8.41291 3.64114 214.539 
-8.33767 3.5208 214.635 
-8.35329 3.38942 214.91 
-8.46698 3.7067 214.522 
-8.36885 3.63991 214.578 
-8.29264 3.43496 214.574 
-8.44943 3.61183 214.969 
-8.45501 3.55707 214.498 
-8.37811 3.37879 214.503 
-8.40853 3.3277 214.473 
-8.5787 3.79523 214.476 
-8.32308 3.38213 214.794 
-8.4358 3.74793 214.704 
-8.45555 3.70839 214.845 
-8.34734 3.57898 214.582 
-8.5379 3.70453 214.48 
-8.32982 3.49271 214.555 
-8.52622 3.82991 214.946 
-8.375 3.39532 214.982 
-8.32819 3.39914 214.535 
-8.47508 3.64241 215.014 
-8.41329 3.70333 214.555 
-8.39058 3.67638 214.616 
-8.36479 3.45396 214.525 
-8.51386 3.65634 214.485 
-8.50359 3.55535 214.468 
-8.45139 3.8304 214.643 
-8.45814 3.62787 214.51 
-8.27386 3.37753 214.565 
-8.32446 3.47554 214.656 
-8.4052 3.4739 214.986 
-8.44335 3.37879 214.466 
-8.46404 3.6945 214.902 
-8.28538 3.40383 214.614 
-8.36413 3.54003 214.718 
-8.4429 3.7119 214.783 
-8.41446 3.49285 214.507 
-8.43856 3.61396 214.908 
-8.36037 3.56724 214.653 
-8.46209 3.42602 214.465 
-8.4743 3.78617 214.806 
-8.43635 3.75681 214.551 
-8.50312 3.80697 214.89 
-8.57915 3.74207 214.466 
-8.4743 3.75561 214.846 
-8.26859 3.35112 214.614 
-8.39217 3.58747 214.762 
-8.51706 3.6067 214.472 
-8.5126 3.77251 214.981 
-8.46008 3.65454 214.942 
-8.30018 3.3449 214.762 
-8.36259 3.43546 214.888 
-8.31634 3.48121 214.605 
-8.45514 3.80318 214.695 
-8.33688 3.35145 214.521 
-8.33078 3.34905 214.877 
-8.38209 3.51714 214.825 
-8.50801 3.73816 214.507 
-8.00774 2.81668 214.56 
-8.03495 2.8449 214.602 
-7.95915 2.8133 214.588 
-7.61719 2.01199 215.217 
-7.83116 1.93325 215.456 
-7.75523 1.95932 215.036 
-7.81321 1.7865 215.129 
-7.7042 1.97806 215.226 
-7.76335 1.95703 215.331 
-7.49814 2.05438 215.148 
-7.75462 1.9606 215.142 
-7.5136 2.04847 215.376 
-7.42996 2.07621 215.037 
-7.78635 1.77039 215.034 
-7.58764 2.02034 215.485 
-7.35841 2.10001 215.144 
-7.3747 2.09382 215.276 
-7.42463 2.07684 215.499 
-7.67189 1.99307 215.472 
-7.85845 1.92251 215.37 
-7.52112 2.0441 215.548 
-7.74374 1.96521 215.437 
-7.7059 1.97913 215.547 
-7.83279 1.88858 215.08 
-7.56205 2.03228 215.164 
-7.35267 2.09955 215.477 
-7.79745 1.94487 215.208 
-7.78477 1.732 215.085 
-7.47413 2.05961 215.45 
-7.61535 2.01245 215.288 
-7.49524 2.05587 215.051 
-7.60114 2.01744 215.348 
-7.4858 2.05805 215.271 
-7.58724 2.02099 215.117 
-7.38223 2.09032 215.328 
-7.58775 2.02389 215.067 
-7.67419 1.98529 215.336 
-7.78495 1.69733 215.13 
-7.6381 2.00292 215.426 
-7.52197 2.04383 215.464 
-7.83064 1.93208 215.26 
-7.55913 2.03115 215.427 
-7.40625 2.08249 215.405 
-7.37866 2.09479 215.06 
-7.63042 2.0072 215.155 
-7.7963 1.94497 215.107 
-7.44185 2.07303 215.235 
-7.71799 1.97445 215.389 
-7.84578 1.86664 215.144 
-7.82719 1.74908 215.222 
-7.44951 2.06961 215.375 
-7.8175 1.69089 215.257 
-7.78732 1.94829 215.489 
-7.81123 1.81234 215.085 
-7.63808 2.00203 215.533 
-7.80146 1.94326 215.387 
-7.82995 1.93331 215.313 
-7.77639 1.95125 215.274 
-7.50785 2.04639 215.225 
-7.69654 1.98148 215.094 
-7.55161 2.03553 215.257 
-7.44261 2.07271 215.103 
-7.83012 1.93254 215.537 
-7.85822 1.86215 215.197 
-7.52602 2.04484 215.302 
-7.42918 2.07653 215.165 
-7.7419 1.96567 215.506 
-7.64383 2.00337 215.085 
-7.36951 2.09378 215.224 
-7.39491 2.08597 215.539 
-7.84441 1.91493 215.195 
-7.76207 1.70593 215.032 
-7.67096 1.98994 215.266 
-7.70898 1.977 215.155 
-7.8286 1.7916 215.181 
-7.54194 2.03931 215.086 
-7.81519 1.8574 215.038 
-7.76473 1.95705 215.573 
-7.80599 1.93784 215.049 
-7.8045 1.70773 215.195 
-7.44079 2.07232 215.314 
-7.82205 1.93574 215.155 
-7.46645 2.0613 215.552 
-7.69253 1.98222 215.037 
-7.59266 2.01942 215.557 
-7.72156 1.97259 215.299 
-7.74787 1.96292 215.087 
-7.8671 1.91889 215.506 
-7.4797 2.05651 215.503 
-7.86892 1.91841 215.424 
-7.84894 1.81611 215.227 
-7.86721 1.91896 215.581 
-7.74392 1.96283 215.194 
-7.62375 2.01043 215.031 
-7.54283 2.03907 215.034 
-7.88537 1.86698 215.299 
-7.95163 1.85488 215.541 
-7.86085 1.78625 215.301 
-7.9083 1.72689 215.504 
-7.88172 1.73727 215.418 
-7.88434 1.81623 215.344 
-7.91496 1.86113 215.414 
-7.9405 1.81017 215.52 
-7.905 1.77647 215.446 
-7.8743 1.86813 215.247 
-7.92498 1.88982 215.502 
-7.92908 1.82976 215.462 
-7.83278 1.68787 215.308 
-7.86771 1.74411 215.361 
-7.92446 1.72062 215.561 
-7.89337 1.78998 215.393 
-7.88345 1.70023 215.457 
-7.84051 1.73627 215.287 
-7.89612 1.88938 215.371 
-7.84855 1.68474 215.366 
-7.95545 1.78784 215.585 
-7.90786 1.90139 215.454 
-7.89684 1.67517 215.527 
-7.91803 1.90048 215.556 
-7.57091 2.29195 214.561 
-7.79788 1.90871 214.925 
-7.67999 2.14539 214.562 
-7.61572 2.00856 214.682 
-7.72612 1.89427 214.599 
-7.74993 1.9601 214.791 
-7.62572 2.00669 214.805 
-7.77293 1.84637 214.875 
-7.43956 2.07076 214.677 
-7.8511 2.19438 214.553 
-7.74377 1.92126 214.558 
-7.53643 2.03909 214.835 
-7.6981 1.74501 214.711 
-7.67479 1.74654 214.612 
-7.59183 2.01983 214.928 
-7.77123 1.94875 214.884 
-7.41122 2.08502 214.959 
-7.72936 1.96849 214.913 
-7.74265 1.80514 214.531 
-7.49963 2.05286 214.981 
-7.75557 1.77036 214.919 
-7.61466 2.05454 214.563 
-7.48925 2.05364 214.747 
-7.68345 1.98474 214.76 
-7.69396 1.81101 214.607 
-7.52026 2.26853 214.562 
-7.76718 1.74504 214.505 
-7.54493 2.03204 214.646 
-7.56538 2.02693 214.695 
-7.64851 2.10585 214.562 
-7.70069 1.71875 214.538 
-7.40911 2.28901 214.563 
-7.9098 2.23756 214.522 
-7.63151 2.00035 214.752 
-7.35687 2.0999 214.798 
-7.49315 2.04861 214.62 
-7.38457 2.08691 214.606 
-7.75144 1.92293 214.695 
-7.4156 2.13465 214.564 
-7.78914 1.83503 214.966 
-7.73857 1.71157 214.927 
-7.40382 2.20744 214.564 
-7.58406 2.02233 214.847 
-7.77912 2.10082 214.564 
-7.38183 2.09184 214.843 
-7.46522 2.06483 214.91 
-7.86501 1.98131 214.499 
-7.82751 2.09304 214.546 
-7.66765 1.98784 214.682 
-7.82703 1.91964 214.507 
-7.69395 1.77027 214.659 
-7.74095 1.84555 214.747 
-7.50584 2.06637 214.563 
-7.73068 1.88117 214.649 
-7.77884 1.9504 214.98 
-7.70974 1.71623 214.799 
-7.52598 2.12045 214.563 
-7.56324 2.03741 214.563 
-7.69247 2.27753 214.561 
-7.76691 2.00534 214.556 
-7.62926 2.00568 214.571 
-7.70339 1.98096 214.963 
-7.56667 2.03113 214.99 
-7.72219 1.79831 214.734 
-7.78977 1.69555 214.482 
-7.64973 1.99884 214.861 
-7.75976 1.91827 214.751 
-7.72377 1.7145 214.865 
-7.72962 1.96529 214.84 
-7.55698 2.20805 214.562 
-7.88177 2.08916 214.508 
-7.68205 2.01948 214.565 
-7.74687 1.80363 214.83 
-7.58915 2.01385 214.612 
-7.68959 2.22303 214.561 
-7.50908 2.18816 214.563 
-7.82363 1.75194 214.474 
-7.77274 1.77411 214.985 
-7.70321 2.09885 214.562 
-7.59236 2.16109 214.562 
-7.4628 2.27201 214.563 
-7.82576 1.81274 214.487 
-7.84474 1.87624 214.488 
-7.78502 1.89348 214.525 
-7.73127 1.79246 214.783 
-7.64596 1.99972 214.953 
-7.71136 1.96764 214.576 
-7.74765 2.14699 214.562 
-7.80991 1.96089 214.53 
-7.72264 1.96748 214.642 
-7.72415 1.96931 214.725 
-7.4565 2.06754 214.848 
-7.64789 2.25392 214.561 
-7.44092 2.07165 214.791 
-7.82002 2.15171 214.556 
-7.44629 2.09476 214.564 
-7.77886 1.89103 214.835 
-7.67006 1.98522 214.602 
-7.37271 2.09346 214.663 
-7.89513 2.17013 214.523 
-7.47272 2.32102 214.562 
-7.67835 1.71834 214.672 
-7.55044 2.03313 214.778 
-7.36423 2.09631 214.747 
-7.7378 2.20918 214.56 
-7.82538 2.25878 214.559 
-7.38605 2.09209 214.91 
-7.45559 2.21123 214.563 
-7.73306 1.85728 214.699 
-7.5301 2.04253 214.923 
-7.76088 2.26266 214.559 
-7.72378 1.84776 214.551 
-7.79194 2.21453 214.559 
-7.46704 2.15688 214.563 
-7.68766 1.98498 214.816 
-7.68086 1.77178 214.563 
-7.42379 2.07811 214.739 
-7.49777 2.05082 214.686 
-7.82105 2.02597 214.532 
-7.71586 1.82807 214.659 
-7.43222 2.07014 214.626 
-7.88807 2.0297 214.495 
-7.73027 1.75699 214.822 
-7.75116 2.05343 214.564 
-7.57653 2.10307 214.561 
-7.36067 2.12537 214.565 
-7.81134 1.90406 215.011 
-7.50383 2.04973 214.795 
-7.7607 1.87731 214.786 
-7.64832 2.19057 214.561 
-7.3709 2.09729 214.99 
-7.6831 1.98702 214.901 
-7.78564 1.8311 214.511 
-7.74864 1.70551 214.98 
-7.41257 2.34136 214.564 
-7.62152 2.30007 214.56 
-7.589 2.51734 214.559 
-7.70775 2.64021 214.558 
-7.60296 2.36964 214.56 
-7.44958 2.44355 214.562 
-7.74217 2.59856 214.561 
-7.51048 2.56793 214.559 
-7.81757 2.31087 214.557 
-7.69547 2.42844 214.558 
-7.64779 2.66154 214.558 
-7.97423 2.47502 214.535 
-7.51658 2.49732 214.56 
-7.52398 2.39277 214.561 
-7.47389 2.60391 214.559 
-7.955 2.70238 214.558 
-7.75411 2.34514 214.559 
-7.75462 2.72051 214.558 
-7.75148 2.39771 214.558 
-7.95075 2.5604 214.562 
-7.60064 2.46397 214.56 
-7.87829 2.7669 214.562 
-7.86332 2.41588 214.558 
-7.69465 2.33372 214.559 
-7.65571 2.36813 214.56 
-7.80847 2.36168 214.557 
-7.7116 2.69453 214.558 
-7.98705 2.65406 214.559 
-7.69894 2.5665 214.557 
-7.93198 2.28663 214.522 
-7.81061 2.67958 214.557 
-7.93037 2.34411 214.531 
-7.64466 2.58055 214.559 
-7.88114 2.65 214.558 
-7.53768 2.6267 214.558 
-7.87505 2.4839 214.558 
-8.02016 2.72183 214.558 
-7.79396 2.52685 214.558 
-7.76541 2.64282 214.557 
-8.00077 2.58085 214.54 
-7.86519 2.7073 214.558 
-7.72758 2.48622 214.558 
-7.8336 2.61677 214.557 
-7.66725 2.52088 214.557 
-7.92427 2.40454 214.546 
-7.93754 2.61613 214.558 
-7.78188 2.47726 214.558 
-7.88515 2.28697 214.547 
-7.8747 2.58293 214.557 
-7.46079 2.37292 214.563 
-7.96957 2.42186 214.524 
-7.88079 2.34092 214.557 
-7.82152 2.73348 214.558 
-7.54267 2.33389 214.561 
-7.58445 2.5805 214.558 
-7.54294 2.44606 214.561 
-7.80844 2.43208 214.558 
-7.4641 2.52529 214.561 
-7.92178 2.50301 214.56 
-7.96614 2.76236 214.562 
-7.59229 2.65952 214.558 
-7.63152 2.41996 214.559 
-7.84478 2.53594 214.558 
-8.04088 2.76866 214.562 
-7.65243 2.47287 214.558 
-7.93917 2.12341 214.483 
-7.99015 2.19879 214.48 
-7.91428 1.97539 214.474 
-7.89023 1.9221 214.473 
-7.9494 2.06317 214.469 
-7.94229 2.18403 214.505 
-7.98371 2.14191 214.468 
-8.07653 2.7308 214.536 
-8.09579 2.53909 214.483 
-8.02795 2.52125 214.516 
-8.06666 2.49092 214.49 
-8.0555 2.56667 214.511 
-8.16636 2.69111 214.477 
-8.024 2.3659 214.488 
-8.0236 2.29352 214.473 
-8.01912 2.44751 214.505 
-8.04182 2.65007 214.534 
-8.12746 2.72554 214.503 
-8.14452 2.58838 214.469 
-8.0875 2.4428 214.468 
-7.95801 2.23644 214.5 
-8.09521 2.61167 214.5 
-8.10339 2.66715 214.503 
-7.98276 2.33856 214.501 
-8.15094 2.64015 214.473 
-8.06423 2.39344 214.468 
-7.97773 2.28856 214.496 
-8.16263 1.984 214.256 
-8.35256 1.66966 213.933 
-8.16644 1.97297 214.205 
-8.1882 1.94077 214.008 
-8.28767 1.9236 213.932 
-8.08921 1.82246 214.334 
-8.23685 2.12999 214.1 
-8.1215 2.1578 214.395 
-8.36066 2.03224 213.912 
-8.08999 1.69745 214.035 
-8.13971 2.00612 214.36 
-8.1766 2.04247 214.318 
-7.96896 1.76221 214.399 
-8.29847 1.67452 213.954 
-8.22623 2.16704 214.267 
-7.9071 1.78907 214.437 
-8.24389 1.85298 214.013 
-8.18917 2.18487 214.364 
-8.03985 1.89069 214.391 
-8.14716 1.93303 214.229 
-8.08845 1.76429 214.191 
-8.07575 2.19363 214.427 
-8.1266 1.84729 214.135 
-8.38081 1.76392 213.919 
-8.12622 1.81566 214.07 
-8.20552 1.75457 213.962 
-8.0692 1.69467 214.158 
-8.21068 2.07105 214.131 
-7.9663 1.93523 214.437 
-8.06829 1.97063 214.394 
-8.21211 2.01856 214.003 
-8.28318 1.84595 213.94 
-8.13631 1.72478 214.015 
-8.22183 2.11068 214.175 
-8.16333 1.91324 214.07 
-8.00585 1.85371 214.4 
-8.43311 1.90635 213.91 
-8.18659 1.82685 214.029 
-8.21555 1.89951 214 
-8.32037 1.9945 213.922 
-8.17132 1.86764 213.988 
-8.0085 2.03788 214.432 
-8.04705 2.0872 214.421 
-8.18232 1.90209 213.944 
-8.14394 1.81809 213.985 
-8.32342 1.78779 213.924 
-8.20924 1.67219 213.958 
-8.33634 2.10861 213.924 
-7.98391 1.71529 214.383 
-8.27614 1.7454 213.979 
-8.24716 2.13599 214.039 
-8.08347 1.77454 214.249 
-8.23267 2.05004 213.94 
-8.13211 1.91371 214.289 
-8.22969 1.93435 213.958 
-8.3825 1.89825 213.917 
-8.08942 1.73439 214.106 
-8.11684 1.83402 214.183 
-8.26654 2.16158 213.973 
-8.15629 1.783 214.036 
-8.11487 1.88869 214.337 
-8.09963 1.6801 213.959 
-8.19405 2.04388 214.192 
-8.06068 1.6975 214.222 
-7.96356 1.86638 214.424 
-8.32637 1.8729 213.927 
-8.05806 1.7441 214.347 
-8.42549 2.08543 213.905 
-8.03654 1.68826 214.348 
-8.30209 2.06044 213.922 
-8.18336 2.04103 214.258 
-8.20575 2.02707 214.06 
-7.90617 1.87499 214.457 
-8.31015 1.73742 213.927 
-8.26611 1.89742 213.986 
-8.14364 1.71099 213.962 
-8.21194 2.11684 214.236 
-8.18143 1.98717 214.119 
-8.06862 1.66206 214.088 
-8.09859 1.77441 214.143 
-7.95793 1.81344 214.417 
-8.03664 2.15667 214.439 
-8.16216 2.12198 214.368 
-8.40938 1.99074 213.905 
-8.10311 2.09725 214.396 
-8.24152 2.09831 213.998 
-8.12907 1.77004 213.956 
-8.14801 1.91748 214.175 
-8.01076 1.92823 214.412 
-8.26758 2.13682 213.927 
-8.19414 1.63247 214.016 
-8.21708 2.15671 214.318 
-8.18215 1.69918 214.023 
-8.37981 1.84472 213.912 
-8.14965 1.90076 214.118 
-8.06679 1.74226 214.29 
-8.18032 1.96184 214.074 
-7.88699 1.74008 214.438 
-8.01787 1.80738 214.385 
-8.21843 1.99477 213.943 
-8.19757 2.11068 214.328 
-8.22924 1.81102 213.99 
-7.96824 2.00524 214.448 
-8.22932 1.86708 213.954 
-8.15666 1.98937 214.316 
-8.37889 1.95101 213.909 
-8.29804 1.8032 213.978 
-8.37856 2.14085 213.91 
-8.26569 1.7741 214.029 
-8.23692 2.16989 214.2 
-8.06081 2.0344 214.404 
-8.1526 1.66432 213.988 
-8.26593 2.0127 213.946 
-8.15121 1.86362 214.041 
-8.33083 1.61197 214.045 
-8.12526 1.95497 214.357 
-8.09616 1.8169 214.277 
-8.12589 1.88328 214.244 
-8.05577 1.83846 214.37 
-7.86916 1.81311 214.462 
-8.23778 2.15435 214.146 
-8.01346 1.98687 214.422 
-8.20546 1.77403 214.016 
-8.26327 1.68681 213.996 
-8.35656 1.61886 213.938 
-8.18109 1.62892 213.961 
-8.2768 1.6279 213.964 
-8.25224 1.70325 213.937 
-8.25423 1.79875 213.939 
-8.11098 1.76567 214.052 
-8.16419 2.07157 214.364 
-8.23044 1.72612 214.012 
-8.22275 2.07567 214.068 
-7.91963 1.70997 214.414 
-8.1705 1.86284 214.092 
-8.34548 1.72521 213.961 
-8.05095 1.68934 214.276 
-8.08324 1.9237 214.373 
-8.0374 2.21571 214.451 
-8.27605 1.95662 213.978 
-7.9971 2.09734 214.448 
-8.35361 1.71534 213.91 
-8.39345 2.6398 214.306 
-8.44675 2.68792 214.085 
-8.3577 2.5092 214.223 
-8.54327 2.56613 213.92 
-8.4901 2.47487 213.925 
-8.35763 2.36497 213.914 
-8.21915 2.28747 214.37 
-8.46133 2.42356 213.915 
-8.42044 2.64331 214.135 
-8.15351 2.21508 214.397 
-8.29443 2.32301 214.187 
-8.30182 2.6452 214.395 
-8.32386 2.30861 213.967 
-8.36306 2.43134 214.016 
-8.28586 2.25624 214.077 
-8.27937 2.45893 214.37 
-8.27785 2.21191 214.037 
-8.16908 2.32724 214.402 
-8.22475 2.61699 214.431 
-8.38364 2.59173 214.253 
-8.34962 2.29517 213.914 
-8.39535 2.50536 213.984 
-8.25755 2.25101 214.28 
-8.28742 2.28867 214.145 
-8.20665 2.37675 214.391 
-8.11861 2.28442 214.42 
-8.30587 2.2848 214.039 
-8.26095 2.2431 214.218 
-8.30286 2.30485 214.086 
-8.32267 2.46135 214.341 
-8.34116 2.37353 214.022 
-8.42556 2.55848 214.034 
-8.35214 2.20691 213.908 
-8.32672 2.57686 214.367 
-8.43672 2.70331 214.168 
-8.48875 2.56901 213.917 
-8.42345 2.68772 214.231 
-8.33645 2.69531 214.386 
-8.35252 2.45911 214.126 
-8.16084 2.39219 214.418 
-8.39724 2.59397 214.169 
-8.15151 2.49205 214.445 
-8.22206 2.48793 214.415 
-8.3239 2.40788 214.209 
-8.45647 2.35924 213.913 
-8.36147 2.55241 214.307 
-8.31107 2.39935 214.292 
-8.38242 2.52137 214.087 
-8.25544 2.20127 214.147 
-8.36812 2.47117 214.056 
-8.47565 2.69522 214 
-8.52952 2.64442 213.919 
-8.3732 2.44655 213.96 
-8.35133 2.39386 213.976 
-8.33206 2.38361 214.082 
-8.22938 2.73545 214.454 
-8.17754 2.55005 214.446 
-8.28618 2.2132 213.975 
-8.28295 2.34082 214.337 
-8.26923 2.40384 214.366 
-8.42205 2.62148 214.072 
-8.41877 2.49545 213.927 
-8.28756 2.33371 214.285 
-8.52985 2.6251 214.028 
-8.40123 2.23267 213.907 
-8.18702 2.43585 214.42 
-8.33649 2.46457 214.266 
-8.43021 2.29517 213.908 
-8.46675 2.69696 213.949 
-8.40433 2.57918 214.095 
-8.44695 2.53277 214.075 
-8.22796 2.43161 214.391 
-8.32962 2.39641 214.131 
-8.30387 2.25039 213.945 
-8.43194 2.58054 213.94 
-8.2958 2.73623 214.415 
-8.40992 2.69569 214.34 
-8.25998 2.5343 214.394 
-8.43966 2.64334 214.014 
-8.4127 2.65004 214.192 
-8.06563 2.25946 214.441 
-8.22706 2.67367 214.443 
-8.30564 2.37285 214.247 
-8.2829 2.18728 213.923 
-8.27875 2.29563 214.232 
-8.39854 2.41076 213.917 
-8.31811 2.50922 214.359 
-8.08524 2.33611 214.446 
-8.48726 2.63674 213.986 
-8.49843 2.5559 213.978 
-8.26426 2.59569 214.407 
-8.20332 2.23455 214.366 
-8.45855 2.64146 213.933 
-8.47425 2.5721 214.044 
-8.37085 2.66384 214.364 
-8.23693 2.21443 214.322 
-8.53351 2.68862 214.014 
-8.34989 2.47094 214.179 
-8.48769 2.30189 213.904 
-8.11379 2.38643 214.441 
-8.25921 2.18002 214.082 
-8.31316 2.37021 214.172 
-8.37998 2.53417 214.137 
-8.42893 2.6006 213.99 
-8.52451 2.51382 213.922 
